214.826237 332.000000 -530.853280
216.810793 332.000000 -531.101349
218.795349 332.000000 -531.349419
220.779905 332.000000 -531.597488
222.764460 332.000000 -531.845558
224.749016 332.000000 -532.093627
226.733572 332.000000 -532.341696
228.718128 332.000000 -532.589766
230.702683 332.000000 -532.837835
232.687239 332.000000 -533.085905
234.671795 332.000000 -533.333974
236.656351 332.000000 -533.582044
238.640906 332.000000 -533.830113
240.625462 332.000000 -534.078183
242.610018 332.000000 -534.326252
244.594574 332.000000 -534.574322
246.579129 332.000000 -534.822391
248.563685 332.000000 -535.070461
250.548241 332.000000 -535.318530
252.532797 332.000000 -535.566600
254.517352 332.000000 -535.814669
256.501908 332.000000 -536.062739
258.486464 332.000000 -536.310808
260.471020 332.000000 -536.558877
262.455575 332.000000 -536.806947
264.440131 332.000000 -537.055016
266.424687 332.000000 -537.303086
268.409243 332.000000 -537.551155
270.393798 332.000000 -537.799225
272.378354 332.000000 -538.047294
274.362910 332.000000 -538.295364
276.347466 332.000000 -538.543433
278.332021 332.000000 -538.791503
280.316577 332.000000 -539.039572
282.301133 332.000000 -539.287642
284.285689 332.000000 -539.535711
286.270244 332.000000 -539.783781
288.254800 332.000000 -540.031850
290.239356 332.000000 -540.279919
292.223912 332.000000 -540.527989
294.208467 332.000000 -540.776058
296.193023 332.000000 -541.024128
298.177579 332.000000 -541.272197
300.162135 332.000000 -541.520267
302.146690 332.000000 -541.768336
304.131246 332.000000 -542.016406
306.115802 332.000000 -542.264475
308.100358 332.000000 -542.512545
310.084913 332.000000 -542.760614
312.069469 332.000000 -543.008684
314.054025 332.000000 -543.256753
316.038581 332.000000 -543.504823
320.000000 332.000000 -544.000000
320.000000 332.000000 -544.000000
322.000000 332.000000 -544.000000
324.000000 332.000000 -544.000000
326.000000 332.000000 -544.000000
328.000000 332.000000 -544.000000
330.000000 332.000000 -544.000000
332.000000 332.000000 -544.000000
334.000000 332.000000 -544.000000
336.000000 332.000000 -544.000000
338.000000 332.000000 -544.000000
340.000000 332.000000 -544.000000
342.000000 332.000000 -544.000000
344.000000 332.000000 -544.000000
346.000000 332.000000 -544.000000
348.000000 332.000000 -544.000000
350.000000 332.000000 -544.000000
352.000000 332.000000 -544.000000
354.000000 332.000000 -544.000000
356.000000 332.000000 -544.000000
358.000000 332.000000 -544.000000
360.000000 332.000000 -544.000000
362.000000 332.000000 -544.000000
364.000000 332.000000 -544.000000
366.000000 332.000000 -544.000000
368.000000 332.000000 -544.000000
370.000000 332.000000 -544.000000
372.000000 332.000000 -544.000000
374.000000 332.000000 -544.000000
376.000000 332.000000 -544.000000
378.000000 332.000000 -544.000000
380.000000 332.000000 -544.000000
384.000000 332.000000 -544.000000
384.000000 332.000000 -544.000000
385.950487 331.616006 -543.780575
387.900975 331.232012 -543.561150
389.851462 330.848018 -543.341724
391.801950 330.464024 -543.122299
393.752437 330.080030 -542.902874
395.702924 329.696036 -542.683449
397.653412 329.312041 -542.464024
399.603899 328.928047 -542.244599
401.554387 328.544053 -542.025173
403.504874 328.160059 -541.805748
405.455362 327.776065 -541.586323
407.405849 327.392071 -541.366898
409.356336 327.008077 -541.147473
411.306824 326.624083 -540.928047
413.257311 326.240089 -540.708622
415.207799 325.856095 -540.489197
417.158286 325.472101 -540.269772
419.108773 325.088107 -540.050347
421.059261 324.704113 -539.830921
423.009748 324.320119 -539.611496
424.960236 323.936124 -539.392071
426.910723 323.552130 -539.172646
428.861210 323.168136 -538.953221
430.811698 322.784142 -538.733796
432.762185 322.400148 -538.514370
434.712673 322.016154 -538.294945
436.663160 321.632160 -538.075520
438.613648 321.248166 -537.856095
440.564135 320.864172 -537.636670
442.514622 320.480178 -537.417244
444.465110 320.096184 -537.197819
446.415597 319.712190 -536.978394
448.366085 319.328196 -536.758969
450.316572 318.944202 -536.539544
452.267059 318.560207 -536.320119
454.217547 318.176213 -536.100693
456.168034 317.792219 -535.881268
458.118522 317.408225 -535.661843
460.069009 317.024231 -535.442418
462.019496 316.640237 -535.222993
463.969984 316.256243 -535.003567
465.920471 315.872249 -534.784142
467.870959 315.488255 -534.564717
469.821446 315.104261 -534.345292
471.771933 314.720267 -534.125867
473.722421 314.336273 -533.906442
475.672908 313.952279 -533.687016
477.623396 313.568285 -533.467591
479.573883 313.184290 -533.248166
481.524371 312.800296 -533.028741
483.474858 312.416302 -532.809316
485.425345 312.032308 -532.589890
487.375833 311.648314 -532.370465
489.326320 311.264320 -532.151040
491.276808 310.880326 -531.931615
493.227295 310.496332 -531.712190
495.177782 310.112338 -531.492764
497.128270 309.728344 -531.273339
499.078757 309.344350 -531.053914
501.029245 308.960356 -530.834489
502.979732 308.576362 -530.615064
504.930219 308.192368 -530.395639
506.880707 307.808373 -530.176213
508.831194 307.424379 -529.956788
510.781682 307.040385 -529.737363
512.732169 306.656391 -529.517938
514.682657 306.272397 -529.298513
516.633144 305.888403 -529.079087
518.583631 305.504409 -528.859662
520.534119 305.120415 -528.640237
522.484606 304.736421 -528.420812
524.435094 304.352427 -528.201387
526.385581 303.968433 -527.981962
528.336068 303.584439 -527.762536
530.286556 303.200445 -527.543111
532.237043 302.816450 -527.323686
534.187531 302.432456 -527.104261
536.138018 302.048462 -526.884836
538.088505 301.664468 -526.665410
540.038993 301.280474 -526.445985
541.989480 300.896480 -526.226560
543.939968 300.512486 -526.007135
545.890455 300.128492 -525.787710
547.840943 299.744498 -525.568285
549.791430 299.360504 -525.348859
551.741917 298.976510 -525.129434
553.692405 298.592516 -524.910009
555.642892 298.208522 -524.690584
557.593380 297.824528 -524.471159
559.543867 297.440533 -524.251733
561.494354 297.056539 -524.032308
563.444842 296.672545 -523.812883
565.395329 296.288551 -523.593458
567.345817 295.904557 -523.374033
569.296304 295.520563 -523.154607
571.246791 295.136569 -522.935182
573.197279 294.752575 -522.715757
575.147766 294.368581 -522.496332
577.098254 293.984587 -522.276907
579.048741 293.600593 -522.057482
580.999229 293.216599 -521.838056
582.949716 292.832605 -521.618631
584.900203 292.448611 -521.399206
586.850691 292.064616 -521.179781
588.801178 291.680622 -520.960356
590.751666 291.296628 -520.740930
592.702153 290.912634 -520.521505
594.652640 290.528640 -520.302080
596.603128 290.144646 -520.082655
598.553615 289.760652 -519.863230
600.504103 289.376658 -519.643805
602.454590 288.992664 -519.424379
604.405077 288.608670 -519.204954
606.355565 288.224676 -518.985529
608.306052 287.840682 -518.766104
610.256540 287.456688 -518.546679
612.207027 287.072694 -518.327253
614.157515 286.688699 -518.107828
616.108002 286.304705 -517.888403
618.058489 285.920711 -517.668978
620.008977 285.536717 -517.449553
621.959464 285.152723 -517.230128
623.909952 284.768729 -517.010702
625.860439 284.384735 -516.791277
627.810926 284.000741 -516.571852
629.761414 283.616747 -516.352427
631.711901 283.232753 -516.133002
633.662389 282.848759 -515.913576
635.612876 282.464765 -515.694151
637.563363 282.080771 -515.474726
639.513851 281.696777 -515.255301
641.464338 281.312782 -515.035876
643.414826 280.928788 -514.816450
645.365313 280.544794 -514.597025
647.315800 280.160800 -514.377600
649.266288 279.776806 -514.158175
651.216775 279.392812 -513.938750
653.167263 279.008818 -513.719325
655.117750 278.624824 -513.499899
657.068238 278.240830 -513.280474
659.018725 277.856836 -513.061049
660.969212 277.472842 -512.841624
662.919700 277.088848 -512.622199
664.870187 276.704854 -512.402773
668.450472 276.000000 -512.000000
668.450472 276.000000 -512.000000
668.959439 274.065846 -512.000000
669.468406 272.131692 -512.000000
669.977373 270.197537 -512.000000
670.486340 268.263383 -512.000000
670.995308 266.329229 -512.000000
671.504275 264.395075 -512.000000
672.013242 262.460921 -512.000000
672.522209 260.526767 -512.000000
673.031176 258.592612 -512.000000
673.540143 256.658458 -512.000000
674.049111 254.724304 -512.000000
674.558078 252.790150 -512.000000
675.067045 250.855996 -512.000000
675.576012 248.921841 -512.000000
676.084979 246.987687 -512.000000
676.593946 245.053533 -512.000000
677.102914 243.119379 -512.000000
677.611881 241.185225 -512.000000
678.120848 239.251070 -512.000000
678.629815 237.316916 -512.000000
679.138782 235.382762 -512.000000
679.647749 233.448608 -512.000000
680.156717 231.514454 -512.000000
680.665684 229.580300 -512.000000
681.174651 227.646145 -512.000000
681.683618 225.711991 -512.000000
682.192585 223.777837 -512.000000
682.701553 221.843683 -512.000000
683.210520 219.909529 -512.000000
683.719487 217.975374 -512.000000
684.228454 216.041220 -512.000000
684.737421 214.107066 -512.000000
685.246388 212.172912 -512.000000
685.755356 210.238758 -512.000000
686.264323 208.304603 -512.000000
686.773290 206.370449 -512.000000
687.282257 204.436295 -512.000000
687.791224 202.502141 -512.000000
688.449656 200.000000 -512.000000
688.449656 200.000000 -512.000000
686.449656 200.000000 -512.000000
684.449656 200.000000 -512.000000
682.449656 200.000000 -512.000000
680.449656 200.000000 -512.000000
678.449656 200.000000 -512.000000
676.449656 200.000000 -512.000000
674.449656 200.000000 -512.000000
672.449656 200.000000 -512.000000
670.449656 200.000000 -512.000000
668.449656 200.000000 -512.000000
666.449656 200.000000 -512.000000
664.449656 200.000000 -512.000000
662.449656 200.000000 -512.000000
660.449656 200.000000 -512.000000
658.449656 200.000000 -512.000000
656.449656 200.000000 -512.000000
654.449656 200.000000 -512.000000
652.449656 200.000000 -512.000000
650.449656 200.000000 -512.000000
648.449656 200.000000 -512.000000
646.449656 200.000000 -512.000000
644.449656 200.000000 -512.000000
642.449656 200.000000 -512.000000
640.449656 200.000000 -512.000000
638.449656 200.000000 -512.000000
636.449656 200.000000 -512.000000
634.449656 200.000000 -512.000000
632.449656 200.000000 -512.000000
630.449656 200.000000 -512.000000
628.449656 200.000000 -512.000000
626.449656 200.000000 -512.000000
624.449656 200.000000 -512.000000
622.449656 200.000000 -512.000000
620.449656 200.000000 -512.000000
618.449656 200.000000 -512.000000
616.449656 200.000000 -512.000000
614.449656 200.000000 -512.000000
612.449656 200.000000 -512.000000
610.449656 200.000000 -512.000000
608.449656 200.000000 -512.000000
606.449656 200.000000 -512.000000
604.449656 200.000000 -512.000000
602.449656 200.000000 -512.000000
600.449656 200.000000 -512.000000
598.449656 200.000000 -512.000000
596.449656 200.000000 -512.000000
594.449656 200.000000 -512.000000
592.449656 200.000000 -512.000000
590.449656 200.000000 -512.000000
588.449656 200.000000 -512.000000
586.449656 200.000000 -512.000000
584.449656 200.000000 -512.000000
582.449656 200.000000 -512.000000
580.449656 200.000000 -512.000000
578.449656 200.000000 -512.000000
576.449656 200.000000 -512.000000
574.449656 200.000000 -512.000000
572.449656 200.000000 -512.000000
570.449656 200.000000 -512.000000
568.449656 200.000000 -512.000000
566.449656 200.000000 -512.000000
564.449656 200.000000 -512.000000
562.449656 200.000000 -512.000000
560.449656 200.000000 -512.000000
558.449656 200.000000 -512.000000
556.449656 200.000000 -512.000000
554.449656 200.000000 -512.000000
552.449656 200.000000 -512.000000
550.449656 200.000000 -512.000000
548.449656 200.000000 -512.000000
546.449656 200.000000 -512.000000
544.449656 200.000000 -512.000000
542.449656 200.000000 -512.000000
540.449656 200.000000 -512.000000
538.449656 200.000000 -512.000000
536.449656 200.000000 -512.000000
534.449656 200.000000 -512.000000
532.449656 200.000000 -512.000000
530.449656 200.000000 -512.000000
527.949656 200.000000 -512.000000
527.949656 200.000000 -512.000000
529.885573 199.497781 -512.000000
531.821490 198.995561 -512.000000
533.757407 198.493342 -512.000000
535.693325 197.991123 -512.000000
537.629242 197.488903 -512.000000
539.565159 196.986684 -512.000000
541.501077 196.484465 -512.000000
543.436994 195.982245 -512.000000
545.372911 195.480026 -512.000000
547.308828 194.977807 -512.000000
549.244746 194.475587 -512.000000
551.180663 193.973368 -512.000000
553.116580 193.471149 -512.000000
555.052498 192.968929 -512.000000
556.988415 192.466710 -512.000000
558.924332 191.964491 -512.000000
560.860249 191.462271 -512.000000
562.796167 190.960052 -512.000000
564.732084 190.457833 -512.000000
566.668001 189.955614 -512.000000
568.603919 189.453394 -512.000000
570.539836 188.951175 -512.000000
572.475753 188.448956 -512.000000
574.411671 187.946736 -512.000000
576.347588 187.444517 -512.000000
578.283505 186.942298 -512.000000
580.219422 186.440078 -512.000000
582.155340 185.937859 -512.000000
584.091257 185.435640 -512.000000
586.027174 184.933420 -512.000000
588.071300 184.403129 -512.000000
588.071300 184.403129 -512.000000
589.252838 184.283321 -513.609228
590.434376 184.163512 -515.218456
591.615913 184.043703 -516.827684
592.797451 183.923895 -518.436912
593.978989 183.804086 -520.046140
595.160527 183.684278 -521.655368
596.342064 183.564469 -523.264595
597.523602 183.444661 -524.873823
598.705140 183.324852 -526.483051
599.886678 183.205044 -528.092279
601.068215 183.085235 -529.701507
602.249753 182.965426 -531.310735
603.431291 182.845618 -532.919963
604.612828 182.725809 -534.529191
605.794366 182.606001 -536.138419
606.975904 182.486192 -537.747647
608.157442 182.366384 -539.356875
609.338979 182.246575 -540.966103
610.520517 182.126766 -542.575331
611.702055 182.006958 -544.184559
612.883592 181.887149 -545.793786
614.065130 181.767341 -547.403014
615.246668 181.647532 -549.012242
616.428206 181.527724 -550.621470
617.609743 181.407915 -552.230698
618.791281 181.288106 -553.839926
619.972819 181.168298 -555.449154
621.154357 181.048489 -557.058382
622.335894 180.928681 -558.667610
623.517432 180.808872 -560.276838
624.698970 180.689064 -561.886066
625.880507 180.569255 -563.495294
627.062045 180.449446 -565.104522
628.243583 180.329638 -566.713750
629.425121 180.209829 -568.322977
630.606658 180.090021 -569.932205
631.788196 179.970212 -571.541433
632.969734 179.850404 -573.150661
634.151271 179.730595 -574.759889
635.332809 179.610786 -576.369117
636.514347 179.490978 -577.978345
637.695885 179.371169 -579.587573
638.877422 179.251361 -581.196801
640.058960 179.131552 -582.806029
641.240498 179.011744 -584.415257
642.422035 178.891935 -586.024485
643.603573 178.772126 -587.633713
644.785111 178.652318 -589.242941
645.966649 178.532509 -590.852168
647.148186 178.412701 -592.461396
648.329724 178.292892 -594.070624
649.511262 178.173084 -595.679852
650.692800 178.053275 -597.289080
651.874337 177.933466 -598.898308
653.055875 177.813658 -600.507536
654.237413 177.693849 -602.116764
655.418950 177.574041 -603.725992
656.600488 177.454232 -605.335220
657.782026 177.334424 -606.944448
658.963564 177.214615 -608.553676
660.145101 177.094806 -610.162904
661.326639 176.974998 -611.772131
662.508177 176.855189 -613.381359
663.689714 176.735381 -614.990587
664.871252 176.615572 -616.599815
666.052790 176.495764 -618.209043
667.234328 176.375955 -619.818271
668.415865 176.256146 -621.427499
669.597403 176.136338 -623.036727
670.778941 176.016529 -624.645955
671.960478 175.896721 -626.255183
673.142016 175.776912 -627.864411
674.323554 175.657104 -629.473639
675.505092 175.537295 -631.082867
676.686629 175.417486 -632.692095
677.868167 175.297678 -634.301322
679.049705 175.177869 -635.910550
680.231243 175.058061 -637.519778
681.412780 174.938252 -639.129006
682.594318 174.818444 -640.738234
683.775856 174.698635 -642.347462
684.957393 174.578826 -643.956690
686.138931 174.459018 -645.565918
687.320469 174.339209 -647.175146
688.502007 174.219401 -648.784374
689.683544 174.099592 -650.393602
690.865082 173.979784 -652.002830
692.046620 173.859975 -653.612058
693.228157 173.740166 -655.221286
694.409695 173.620358 -656.830513
695.591233 173.500549 -658.439741
696.772771 173.380741 -660.048969
697.954308 173.260932 -661.658197
699.135846 173.141124 -663.267425
700.317384 173.021315 -664.876653
701.498921 172.901506 -666.485881
702.680459 172.781698 -668.095109
703.861997 172.661889 -669.704337
705.043535 172.542081 -671.313565
706.225072 172.422272 -672.922793
707.406610 172.302464 -674.532021
708.588148 172.182655 -676.141249
709.769686 172.062847 -677.750476
710.951223 171.943038 -679.359704
712.132761 171.823229 -680.968932
713.314299 171.703421 -682.578160
714.495836 171.583612 -684.187388
715.677374 171.463804 -685.796616
716.858912 171.343995 -687.405844
718.040450 171.224187 -689.015072
719.221987 171.104378 -690.624300
720.403525 170.984569 -692.233528
721.585063 170.864761 -693.842756
722.766600 170.744952 -695.451984
723.948138 170.625144 -697.061212
725.129676 170.505335 -698.670440
726.311214 170.385527 -700.279667
727.492751 170.265718 -701.888895
728.674289 170.145909 -703.498123
729.855827 170.026101 -705.107351
731.037365 169.906292 -706.716579
732.218902 169.786484 -708.325807
733.400440 169.666675 -709.935035
734.581978 169.546867 -711.544263
735.763515 169.427058 -713.153491
736.945053 169.307249 -714.762719
738.126591 169.187441 -716.371947
739.308129 169.067632 -717.981175
740.489666 168.947824 -719.590403
741.671204 168.828015 -721.199631
742.852742 168.708207 -722.808858
744.034279 168.588398 -724.418086
745.215817 168.468589 -726.027314
746.397355 168.348781 -727.636542
747.578893 168.228972 -729.245770
748.760430 168.109164 -730.854998
749.941968 167.989355 -732.464226
751.123506 167.869547 -734.073454
752.305043 167.749738 -735.682682
753.486581 167.629929 -737.291910
754.668119 167.510121 -738.901138
755.849657 167.390312 -740.510366
757.031194 167.270504 -742.119594
758.212732 167.150695 -743.728822
759.394270 167.030887 -745.338049
760.575808 166.911078 -746.947277
761.757345 166.791269 -748.556505
762.938883 166.671461 -750.165733
764.120421 166.551652 -751.774961
765.301958 166.431844 -753.384189
766.483496 166.312035 -754.993417
767.665034 166.192227 -756.602645
768.846572 166.072418 -758.211873
770.028109 165.952609 -759.821101
771.209647 165.832801 -761.430329
772.391185 165.712992 -763.039557
773.572722 165.593184 -764.648785
774.754260 165.473375 -766.258012
775.935798 165.353567 -767.867240
777.117336 165.233758 -769.476468
778.298873 165.113949 -771.085696
779.480411 164.994141 -772.694924
780.661949 164.874332 -774.304152
781.843486 164.754524 -775.913380
783.025024 164.634715 -777.522608
784.206562 164.514907 -779.131836
785.388100 164.395098 -780.741064
786.569637 164.275289 -782.350292
787.751175 164.155481 -783.959520
788.932713 164.035672 -785.568748
790.114251 163.915864 -787.177976
791.295788 163.796055 -788.787203
792.477326 163.676247 -790.396431
793.658864 163.556438 -792.005659
794.840401 163.436629 -793.614887
796.021939 163.316821 -795.224115
797.203477 163.197012 -796.833343
798.385015 163.077204 -798.442571
799.566552 162.957395 -800.051799
800.748090 162.837587 -801.661027
801.929628 162.717778 -803.270255
803.111165 162.597969 -804.879483
804.292703 162.478161 -806.488711
805.474241 162.358352 -808.097939
806.655779 162.238544 -809.707167
807.837316 162.118735 -811.316394
809.018854 161.998927 -812.925622
810.200392 161.879118 -814.534850
811.381930 161.759310 -816.144078
812.563467 161.639501 -817.753306
813.745005 161.519692 -819.362534
814.926543 161.399884 -820.971762
816.108080 161.280075 -822.580990
817.289618 161.160267 -824.190218
818.471156 161.040458 -825.799446
819.652694 160.920650 -827.408674
820.834231 160.800841 -829.017902
822.015769 160.681032 -830.627130
823.197307 160.561224 -832.236358
824.378844 160.441415 -833.845585
825.560382 160.321607 -835.454813
826.741920 160.201798 -837.064041
827.923458 160.081990 -838.673269
829.104995 159.962181 -840.282497
830.286533 159.842372 -841.891725
831.468071 159.722564 -843.500953
832.649608 159.602755 -845.110181
833.831146 159.482947 -846.719409
835.012684 159.363138 -848.328637
836.194222 159.243330 -849.937865
837.375759 159.123521 -851.547093
838.557297 159.003712 -853.156321
839.738835 158.883904 -854.765548
840.920373 158.764095 -856.374776
842.101910 158.644287 -857.984004
843.283448 158.524478 -859.593232
844.464986 158.404670 -861.202460
845.646523 158.284861 -862.811688
846.828061 158.165052 -864.420916
848.009599 158.045244 -866.030144
849.191137 157.925435 -867.639372
850.372674 157.805627 -869.248600
851.554212 157.685818 -870.857828
852.735750 157.566010 -872.467056
853.917287 157.446201 -874.076284
855.098825 157.326392 -875.685512
856.280363 157.206584 -877.294739
857.461901 157.086775 -878.903967
858.643438 156.966967 -880.513195
859.824976 156.847158 -882.122423
861.006514 156.727350 -883.731651
862.188051 156.607541 -885.340879
863.369589 156.487732 -886.950107
864.551127 156.367924 -888.559335
865.732665 156.248115 -890.168563
866.914202 156.128307 -891.777791
868.095740 156.008498 -893.387019
869.277278 155.888690 -894.996247
870.458816 155.768881 -896.605475
871.640353 155.649072 -898.214703
872.821891 155.529264 -899.823930
874.003429 155.409455 -901.433158
875.184966 155.289647 -903.042386
876.366504 155.169838 -904.651614
877.548042 155.050030 -906.260842
878.729580 154.930221 -907.870070
879.911117 154.810412 -909.479298
881.092655 154.690604 -911.088526
882.274193 154.570795 -912.697754
883.455730 154.450987 -914.306982
884.637268 154.331178 -915.916210
885.818806 154.211370 -917.525438
887.000344 154.091561 -919.134666
888.181881 153.971752 -920.743894
889.363419 153.851944 -922.353121
890.544957 153.732135 -923.962349
891.726495 153.612327 -925.571577
892.908032 153.492518 -927.180805
894.089570 153.372710 -928.790033
895.271108 153.252901 -930.399261
896.452645 153.133092 -932.008489
897.634183 153.013284 -933.617717
898.815721 152.893475 -935.226945
899.997259 152.773667 -936.836173
901.178796 152.653858 -938.445401
902.360334 152.534050 -940.054629
903.541872 152.414241 -941.663857
904.723409 152.294432 -943.273084
905.904947 152.174624 -944.882312
907.086485 152.054815 -946.491540
908.268023 151.935007 -948.100768
909.449560 151.815198 -949.709996
910.631098 151.695390 -951.319224
911.812636 151.575581 -952.928452
912.994173 151.455772 -954.537680
914.175711 151.335964 -956.146908
915.357249 151.216155 -957.756136
916.538787 151.096347 -959.365364
917.720324 150.976538 -960.974592
918.901862 150.856730 -962.583820
920.083400 150.736921 -964.193048
921.264938 150.617113 -965.802275
922.446475 150.497304 -967.411503
923.628013 150.377495 -969.020731
924.809551 150.257687 -970.629959
925.991088 150.137878 -972.239187
927.172626 150.018070 -973.848415
928.354164 149.898261 -975.457643
929.535702 149.778453 -977.066871
930.717239 149.658644 -978.676099
931.898777 149.538835 -980.285327
933.080315 149.419027 -981.894555
934.261852 149.299218 -983.503783
935.443390 149.179410 -985.113011
936.624928 149.059601 -986.722239
937.806466 148.939793 -988.331466
938.988003 148.819984 -989.940694
940.500000 148.666667 -992.000000
940.500000 148.666667 -992.000000
940.500000 146.666667 -992.000000
940.500000 144.666667 -992.000000
940.500000 142.666667 -992.000000
940.500000 140.666667 -992.000000
940.500000 138.666667 -992.000000
940.500000 136.666667 -992.000000
940.500000 134.666667 -992.000000
940.500000 132.666667 -992.000000
940.500000 130.666667 -992.000000
940.500000 128.666667 -992.000000
940.500000 126.666667 -992.000000
940.500000 124.666667 -992.000000
940.500000 122.666667 -992.000000
940.500000 120.666667 -992.000000
940.500000 118.666667 -992.000000
940.500000 116.666667 -992.000000
940.500000 114.666667 -992.000000
940.500000 112.666667 -992.000000
940.500000 110.666667 -992.000000
940.500000 108.666667 -992.000000
940.500000 106.666667 -992.000000
940.500000 104.666667 -992.000000
940.500000 102.666667 -992.000000
940.500000 100.666667 -992.000000
940.500000 98.666667 -992.000000
940.500000 96.666667 -992.000000
940.500000 94.666667 -992.000000
940.500000 92.666667 -992.000000
940.500000 90.666667 -992.000000
940.500000 88.666667 -992.000000
940.500000 86.666667 -992.000000
940.500000 84.666667 -992.000000
940.500000 82.666667 -992.000000
940.500000 80.666667 -992.000000
940.500000 78.666667 -992.000000
940.500000 76.666667 -992.000000
940.500000 74.666667 -992.000000
940.500000 72.666667 -992.000000
940.500000 70.666667 -992.000000
940.500000 68.666667 -992.000000
940.500000 66.666667 -992.000000
940.500000 64.666667 -992.000000
940.500000 62.666667 -992.000000
940.500000 60.666667 -992.000000
940.500000 58.666667 -992.000000
940.500000 56.666667 -992.000000
940.500000 54.666667 -992.000000
940.500000 52.666667 -992.000000
940.500000 50.666667 -992.000000
940.500000 48.666667 -992.000000
940.500000 46.666667 -992.000000
940.500000 44.666667 -992.000000
940.500000 42.666667 -992.000000
940.500000 40.666667 -992.000000
940.500000 38.666667 -992.000000
940.500000 36.666667 -992.000000
940.500000 34.666667 -992.000000
940.500000 32.666667 -992.000000
940.500000 30.666667 -992.000000
940.500000 28.666667 -992.000000
940.500000 26.666667 -992.000000
940.500000 24.666667 -992.000000
940.500000 22.666667 -992.000000
940.500000 20.666667 -992.000000
940.500000 18.666667 -992.000000
940.500000 16.666667 -992.000000
940.500000 14.666667 -992.000000
940.500000 12.666667 -992.000000
940.500000 10.666667 -992.000000
940.500000 8.666667 -992.000000
940.500000 6.666667 -992.000000
940.500000 4.666667 -992.000000
940.500000 2.666667 -992.000000
940.500000 0.666667 -992.000000
940.500000 -1.333333 -992.000000
940.500000 -3.333333 -992.000000
940.500000 -5.333333 -992.000000
940.500000 -7.333333 -992.000000
940.500000 -9.333333 -992.000000
940.500000 -11.333333 -992.000000
940.500000 -13.333333 -992.000000
940.500000 -15.333333 -992.000000
940.500000 -17.333333 -992.000000
940.500000 -19.333333 -992.000000
940.500000 -21.333333 -992.000000
940.500000 -23.333333 -992.000000
940.500000 -25.333333 -992.000000
940.500000 -27.333333 -992.000000
940.500000 -29.333333 -992.000000
940.500000 -31.333333 -992.000000
940.500000 -33.333333 -992.000000
940.500000 -35.333333 -992.000000
940.500000 -37.333333 -992.000000
940.500000 -39.333333 -992.000000
940.500000 -41.333333 -992.000000
940.500000 -43.333333 -992.000000
940.500000 -45.333333 -992.000000
940.500000 -47.333333 -992.000000
940.500000 -49.333333 -992.000000
940.500000 -51.333333 -992.000000
940.500000 -53.333333 -992.000000
940.500000 -55.333333 -992.000000
940.500000 -57.333333 -992.000000
940.500000 -59.333333 -992.000000
940.500000 -61.333333 -992.000000
940.500000 -63.333333 -992.000000
940.500000 -65.333333 -992.000000
940.500000 -67.333333 -992.000000
940.500000 -69.333333 -992.000000
940.500000 -71.333333 -992.000000
940.500000 -75.333333 -992.000000
940.500000 -75.333333 -992.000000
940.141053 -74.981936 -990.064108
939.782107 -74.630538 -988.128216
939.423160 -74.279141 -986.192325
939.064214 -73.927743 -984.256433
938.705267 -73.576346 -982.320541
938.346320 -73.224949 -980.384649
937.987374 -72.873551 -978.448757
937.628427 -72.522154 -976.512865
937.269481 -72.170756 -974.576974
936.910534 -71.819359 -972.641082
936.551587 -71.467961 -970.705190
936.192641 -71.116564 -968.769298
935.833694 -70.765166 -966.833406
935.474747 -70.413769 -964.897514
935.115801 -70.062371 -962.961623
934.756854 -69.710974 -961.025731
934.397908 -69.359577 -959.089839
934.038961 -69.008179 -957.153947
933.680014 -68.656782 -955.218055
933.321068 -68.305384 -953.282164
932.962121 -67.953987 -951.346272
932.603175 -67.602589 -949.410380
932.244228 -67.251192 -947.474488
931.885281 -66.899794 -945.538596
931.526335 -66.548397 -943.602704
931.167388 -66.196999 -941.666813
930.808442 -65.845602 -939.730921
930.449495 -65.494204 -937.795029
930.090548 -65.142807 -935.859137
929.731602 -64.791410 -933.923245
929.372655 -64.440012 -931.987353
929.013709 -64.088615 -930.051462
928.654762 -63.737217 -928.115570
928.295815 -63.385820 -926.179678
927.936869 -63.034422 -924.243786
927.577922 -62.683025 -922.307894
927.218975 -62.331627 -920.372002
926.860029 -61.980230 -918.436111
926.501082 -61.628832 -916.500219
926.142136 -61.277435 -914.564327
925.783189 -60.926038 -912.628435
925.424242 -60.574640 -910.692543
925.065296 -60.223243 -908.756652
924.706349 -59.871845 -906.820760
924.347403 -59.520448 -904.884868
923.988456 -59.169050 -902.948976
923.629509 -58.817653 -901.013084
923.270563 -58.466255 -899.077192
922.911616 -58.114858 -897.141301
922.552670 -57.763460 -895.205409
922.193723 -57.412063 -893.269517
921.834776 -57.060665 -891.333625
921.475830 -56.709268 -889.397733
921.116883 -56.357871 -887.461841
920.757936 -56.006473 -885.525950
920.398990 -55.655076 -883.590058
920.040043 -55.303678 -881.654166
919.681097 -54.952281 -879.718274
919.322150 -54.600883 -877.782382
918.963203 -54.249486 -875.846491
918.604257 -53.898088 -873.910599
918.245310 -53.546691 -871.974707
917.886364 -53.195293 -870.038815
917.527417 -52.843896 -868.102923
917.168470 -52.492499 -866.167031
916.809524 -52.141101 -864.231140
916.450577 -51.789704 -862.295248
916.091631 -51.438306 -860.359356
915.732684 -51.086909 -858.423464
915.373737 -50.735511 -856.487572
915.014791 -50.384114 -854.551680
914.655844 -50.032716 -852.615789
914.296898 -49.681319 -850.679897
913.937951 -49.329921 -848.744005
913.579004 -48.978524 -846.808113
913.220058 -48.627126 -844.872221
912.861111 -48.275729 -842.936329
912.502164 -47.924332 -841.000438
912.143218 -47.572934 -839.064546
911.784271 -47.221537 -837.128654
911.425325 -46.870139 -835.192762
911.066378 -46.518742 -833.256870
910.707431 -46.167344 -831.320979
910.348485 -45.815947 -829.385087
909.989538 -45.464549 -827.449195
909.630592 -45.113152 -825.513303
909.271645 -44.761754 -823.577411
908.912698 -44.410357 -821.641519
908.553752 -44.058960 -819.705628
908.194805 -43.707562 -817.769736
907.835859 -43.356165 -815.833844
907.476912 -43.004767 -813.897952
907.117965 -42.653370 -811.962060
906.759019 -42.301972 -810.026168
906.400072 -41.950575 -808.090277
906.041126 -41.599177 -806.154385
905.682179 -41.247780 -804.218493
905.323232 -40.896382 -802.282601
904.964286 -40.544985 -800.346709
904.605339 -40.193587 -798.410818
904.246392 -39.842190 -796.474926
903.887446 -39.490793 -794.539034
903.528499 -39.139395 -792.603142
903.169553 -38.787998 -790.667250
902.810606 -38.436600 -788.731358
902.451659 -38.085203 -786.795467
902.092713 -37.733805 -784.859575
901.733766 -37.382408 -782.923683
901.374820 -37.031010 -780.987791
901.015873 -36.679613 -779.051899
900.656926 -36.328215 -777.116007
900.297980 -35.976818 -775.180116
899.939033 -35.625421 -773.244224
899.580087 -35.274023 -771.308332
899.221140 -34.922626 -769.372440
898.862193 -34.571228 -767.436548
898.503247 -34.219831 -765.500656
898.144300 -33.868433 -763.564765
897.785354 -33.517036 -761.628873
897.426407 -33.165638 -759.692981
897.067460 -32.814241 -757.757089
896.708514 -32.462843 -755.821197
896.000000 -31.769231 -752.000000
896.000000 -31.769231 -752.000000
894.917360 -30.087597 -752.000000
893.834721 -28.405964 -752.000000
892.752081 -26.724330 -752.000000
891.669441 -25.042697 -752.000000
890.586802 -23.361063 -752.000000
889.504162 -21.679429 -752.000000
888.421523 -19.997796 -752.000000
887.338883 -18.316162 -752.000000
886.256243 -16.634529 -752.000000
885.173604 -14.952895 -752.000000
884.090964 -13.271262 -752.000000
883.008324 -11.589628 -752.000000
881.925685 -9.907995 -752.000000
880.843045 -8.226361 -752.000000
879.760406 -6.544727 -752.000000
878.677766 -4.863094 -752.000000
877.595126 -3.181460 -752.000000
876.512487 -1.499827 -752.000000
875.429847 0.181807 -752.000000
874.347207 1.863440 -752.000000
873.264568 3.545074 -752.000000
872.181928 5.226708 -752.000000
871.099288 6.908341 -752.000000
870.016649 8.589975 -752.000000
868.934009 10.271608 -752.000000
867.851370 11.953242 -752.000000
866.768730 13.634875 -752.000000
865.686090 15.316509 -752.000000
864.603451 16.998142 -752.000000
863.520811 18.679776 -752.000000
862.438171 20.361410 -752.000000
861.355532 22.043043 -752.000000
860.272892 23.724677 -752.000000
859.190252 25.406310 -752.000000
858.107613 27.087944 -752.000000
857.024973 28.769577 -752.000000
855.942334 30.451211 -752.000000
854.859694 32.132844 -752.000000
853.777054 33.814478 -752.000000
852.694415 35.496112 -752.000000
851.611775 37.177745 -752.000000
850.529135 38.859379 -752.000000
849.446496 40.541012 -752.000000
848.363856 42.222646 -752.000000
847.281217 43.904279 -752.000000
846.198577 45.585913 -752.000000
845.115937 47.267546 -752.000000
844.033298 48.949180 -752.000000
842.950658 50.630814 -752.000000
841.868018 52.312447 -752.000000
840.785379 53.994081 -752.000000
839.702739 55.675714 -752.000000
838.620099 57.357348 -752.000000
837.537460 59.038981 -752.000000
836.454820 60.720615 -752.000000
835.372181 62.402249 -752.000000
834.289541 64.083882 -752.000000
833.206901 65.765516 -752.000000
832.124262 67.447149 -752.000000
831.041622 69.128783 -752.000000
829.958982 70.810416 -752.000000
828.876343 72.492050 -752.000000
827.793703 74.173683 -752.000000
826.711064 75.855317 -752.000000
825.628424 77.536951 -752.000000
824.545784 79.218584 -752.000000
823.463145 80.900218 -752.000000
822.380505 82.581851 -752.000000
821.297865 84.263485 -752.000000
819.369847 87.258221 -752.000000
819.369847 87.258221 -752.000000
819.192795 87.285692 -750.008042
819.015743 87.313164 -748.016083
818.838690 87.340636 -746.024125
818.661638 87.368108 -744.032167
818.484586 87.395580 -742.040209
818.307533 87.423051 -740.048250
818.130481 87.450523 -738.056292
817.953429 87.477995 -736.064334
817.776376 87.505467 -734.072376
817.599324 87.532939 -732.080417
817.422272 87.560410 -730.088459
817.245219 87.587882 -728.096501
817.068167 87.615354 -726.104542
816.891115 87.642826 -724.112584
816.714062 87.670298 -722.120626
816.537010 87.697769 -720.128668
816.359958 87.725241 -718.136709
816.182906 87.752713 -716.144751
816.005853 87.780185 -714.152793
815.828801 87.807657 -712.160834
815.651749 87.835128 -710.168876
815.474696 87.862600 -708.176918
815.297644 87.890072 -706.184960
815.120592 87.917544 -704.193001
814.943539 87.945016 -702.201043
814.766487 87.972487 -700.209085
814.589435 87.999959 -698.217127
814.412382 88.027431 -696.225168
814.235330 88.054903 -694.233210
814.058278 88.082374 -692.241252
813.881225 88.109846 -690.249293
813.704173 88.137318 -688.257335
813.527121 88.164790 -686.265377
813.350068 88.192262 -684.273419
813.173016 88.219733 -682.281460
812.995964 88.247205 -680.289502
812.818911 88.274677 -678.297544
812.641859 88.302149 -676.305585
812.464807 88.329621 -674.313627
812.287754 88.357092 -672.321669
812.110702 88.384564 -670.329711
811.933650 88.412036 -668.337752
811.756597 88.439508 -666.345794
811.579545 88.466980 -664.353836
811.402493 88.494451 -662.361878
811.225440 88.521923 -660.369919
811.048388 88.549395 -658.377961
810.871336 88.576867 -656.386003
810.694283 88.604339 -654.394044
810.517231 88.631810 -652.402086
810.340179 88.659282 -650.410128
810.163127 88.686754 -648.418170
809.986074 88.714226 -646.426211
809.809022 88.741698 -644.434253
809.631970 88.769169 -642.442295
809.454917 88.796641 -640.450337
809.277865 88.824113 -638.458378
809.100813 88.851585 -636.466420
808.923760 88.879056 -634.474462
808.746708 88.906528 -632.482503
808.569656 88.934000 -630.490545
808.392603 88.961472 -628.498587
808.215551 88.988944 -626.506629
808.038499 89.016415 -624.514670
807.861446 89.043887 -622.522712
807.684394 89.071359 -620.530754
807.507342 89.098831 -618.538795
807.330289 89.126303 -616.546837
807.153237 89.153774 -614.554879
806.976185 89.181246 -612.562921
806.799132 89.208718 -610.570962
806.622080 89.236190 -608.579004
806.445028 89.263662 -606.587046
806.267975 89.291133 -604.595088
806.090923 89.318605 -602.603129
805.913871 89.346077 -600.611171
805.736818 89.373549 -598.619213
805.559766 89.401021 -596.627254
805.382714 89.428492 -594.635296
805.205661 89.455964 -592.643338
805.028609 89.483436 -590.651380
804.851557 89.510908 -588.659421
804.674504 89.538379 -586.667463
804.497452 89.565851 -584.675505
804.320400 89.593323 -582.683546
804.143348 89.620795 -580.691588
803.966295 89.648267 -578.699630
803.789243 89.675738 -576.707672
803.612191 89.703210 -574.715713
803.435138 89.730682 -572.723755
803.258086 89.758154 -570.731797
803.081034 89.785626 -568.739839
802.903981 89.813097 -566.747880
802.726929 89.840569 -564.755922
802.549877 89.868041 -562.763964
802.372824 89.895513 -560.772005
802.195772 89.922985 -558.780047
802.018720 89.950456 -556.788089
801.841667 89.977928 -554.796131
801.664615 90.005400 -552.804172
801.487563 90.032872 -550.812214
801.310510 90.060344 -548.820256
801.133458 90.087815 -546.828298
800.956406 90.115287 -544.836339
800.779353 90.142759 -542.844381
800.602301 90.170231 -540.852423
800.425249 90.197703 -538.860464
800.248196 90.225174 -536.868506
800.071144 90.252646 -534.876548
799.894092 90.280118 -532.884590
799.717039 90.307590 -530.892631
799.539987 90.335061 -528.900673
799.362935 90.362533 -526.908715
799.185882 90.390005 -524.916756
799.008830 90.417477 -522.924798
798.831778 90.444949 -520.932840
798.654725 90.472420 -518.940882
798.477673 90.499892 -516.948923
798.300621 90.527364 -514.956965
798.037795 90.568145 -512.000000
798.037795 90.568145 -512.000000
797.087117 88.808539 -512.000000
796.136439 87.048934 -512.000000
795.185760 85.289329 -512.000000
794.235082 83.529723 -512.000000
793.284404 81.770118 -512.000000
792.333726 80.010513 -512.000000
791.383047 78.250907 -512.000000
790.432369 76.491302 -512.000000
789.481691 74.731697 -512.000000
788.531013 72.972092 -512.000000
787.580334 71.212486 -512.000000
786.629656 69.452881 -512.000000
785.678978 67.693276 -512.000000
784.728300 65.933670 -512.000000
783.777621 64.174065 -512.000000
782.826943 62.414460 -512.000000
781.876265 60.654854 -512.000000
780.925586 58.895249 -512.000000
779.974908 57.135644 -512.000000
779.024230 55.376038 -512.000000
778.073552 53.616433 -512.000000
777.122873 51.856828 -512.000000
776.172195 50.097223 -512.000000
775.221517 48.337617 -512.000000
774.270839 46.578012 -512.000000
773.320160 44.818407 -512.000000
772.369482 43.058801 -512.000000
770.666667 39.907070 -512.000000
770.666667 39.907070 -512.000000
770.568490 40.068465 -513.991058
770.470313 40.229861 -515.982116
770.372136 40.391256 -517.973175
770.273959 40.552652 -519.964233
770.175782 40.714048 -521.955291
770.077606 40.875443 -523.946349
769.979429 41.036839 -525.937407
769.881252 41.198235 -527.928466
769.783075 41.359630 -529.919524
769.684898 41.521026 -531.910582
769.586721 41.682421 -533.901640
769.488544 41.843817 -535.892698
769.390368 42.005213 -537.883757
769.292191 42.166608 -539.874815
769.194014 42.328004 -541.865873
769.095837 42.489400 -543.856931
768.997660 42.650795 -545.847989
768.899483 42.812191 -547.839048
768.801306 42.973586 -549.830106
768.703130 43.134982 -551.821164
768.604953 43.296378 -553.812222
768.506776 43.457773 -555.803280
768.408599 43.619169 -557.794339
768.310422 43.780565 -559.785397
768.212245 43.941960 -561.776455
768.114068 44.103356 -563.767513
768.015892 44.264752 -565.758571
767.917715 44.426147 -567.749630
767.819538 44.587543 -569.740688
767.721361 44.748938 -571.731746
767.623184 44.910334 -573.722804
767.525007 45.071730 -575.713862
767.426830 45.233125 -577.704921
767.328654 45.394521 -579.695979
767.230477 45.555917 -581.687037
767.132300 45.717312 -583.678095
767.034123 45.878708 -585.669153
766.935946 46.040103 -587.660212
766.837769 46.201499 -589.651270
766.739592 46.362895 -591.642328
766.641416 46.524290 -593.633386
766.543239 46.685686 -595.624444
766.445062 46.847082 -597.615503
766.346885 47.008477 -599.606561
766.248708 47.169873 -601.597619
766.150531 47.331268 -603.588677
766.052354 47.492664 -605.579735
765.954178 47.654060 -607.570794
765.856001 47.815455 -609.561852
765.757824 47.976851 -611.552910
765.659647 48.138247 -613.543968
765.561470 48.299642 -615.535026
765.463293 48.461038 -617.526085
765.365116 48.622433 -619.517143
765.266940 48.783829 -621.508201
765.168763 48.945225 -623.499259
765.070586 49.106620 -625.490317
764.972409 49.268016 -627.481376
764.874232 49.429412 -629.472434
764.776055 49.590807 -631.463492
764.677878 49.752203 -633.454550
764.579702 49.913598 -635.445608
764.481525 50.074994 -637.436667
764.383348 50.236390 -639.427725
764.285171 50.397785 -641.418783
764.186994 50.559181 -643.409841
764.088817 50.720577 -645.400899
763.990640 50.881972 -647.391958
763.892464 51.043368 -649.383016
763.794287 51.204763 -651.374074
763.696110 51.366159 -653.365132
763.597933 51.527555 -655.356190
763.499756 51.688950 -657.347249
763.401579 51.850346 -659.338307
763.303402 52.011742 -661.329365
763.205226 52.173137 -663.320423
763.107049 52.334533 -665.311481
763.008872 52.495928 -667.302540
762.910695 52.657324 -669.293598
762.812518 52.818720 -671.284656
762.714341 52.980115 -673.275714
762.616164 53.141511 -675.266772
762.517988 53.302907 -677.257831
762.419811 53.464302 -679.248889
762.321634 53.625698 -681.239947
762.223457 53.787093 -683.231005
762.125280 53.948489 -685.222063
762.027103 54.109885 -687.213122
761.928926 54.271280 -689.204180
761.830750 54.432676 -691.195238
761.732573 54.594072 -693.186296
761.634396 54.755467 -695.177354
761.536219 54.916863 -697.168413
761.438042 55.078259 -699.159471
761.339865 55.239654 -701.150529
761.241688 55.401050 -703.141587
761.143512 55.562445 -705.132645
761.045335 55.723841 -707.123704
760.947158 55.885237 -709.114762
760.848981 56.046632 -711.105820
760.750804 56.208028 -713.096878
760.652627 56.369424 -715.087936
760.554451 56.530819 -717.078995
760.456274 56.692215 -719.070053
760.358097 56.853610 -721.061111
760.259920 57.015006 -723.052169
760.161743 57.176402 -725.043227
760.063566 57.337797 -727.034286
759.965389 57.499193 -729.025344
759.867213 57.660589 -731.016402
759.769036 57.821984 -733.007460
759.670859 57.983380 -734.998518
759.572682 58.144775 -736.989577
759.474505 58.306171 -738.980635
759.376328 58.467567 -740.971693
759.278151 58.628962 -742.962751
759.179975 58.790358 -744.953809
759.081798 58.951754 -746.944868
758.983621 59.113149 -748.935926
758.832535 59.361524 -752.000000
758.832535 59.361524 -752.000000
759.448853 58.842575 -750.169469
760.065171 58.323627 -748.338938
760.681489 57.804679 -746.508406
761.297807 57.285730 -744.677875
761.914125 56.766782 -742.847344
762.530443 56.247833 -741.016813
763.146761 55.728885 -739.186281
763.763079 55.209937 -737.355750
764.379398 54.690988 -735.525219
764.995716 54.172040 -733.694688
765.612034 53.653091 -731.864156
766.228352 53.134143 -730.033625
766.844670 52.615195 -728.203094
767.460988 52.096246 -726.372563
768.077306 51.577298 -724.542032
768.693624 51.058350 -722.711500
769.309942 50.539401 -720.880969
769.926260 50.020453 -719.050438
770.542578 49.501504 -717.219907
771.158897 48.982556 -715.389375
771.775215 48.463608 -713.558844
772.391533 47.944659 -711.728313
773.007851 47.425711 -709.897782
773.624169 46.906762 -708.067250
774.240487 46.387814 -706.236719
774.856805 45.868866 -704.406188
775.473123 45.349917 -702.575657
776.089441 44.830969 -700.745126
776.705759 44.312021 -698.914594
777.322077 43.793072 -697.084063
777.938395 43.274124 -695.253532
778.554714 42.755175 -693.423001
779.171032 42.236227 -691.592469
779.787350 41.717279 -689.761938
780.403668 41.198330 -687.931407
781.019986 40.679382 -686.100876
781.636304 40.160433 -684.270344
782.252622 39.641485 -682.439813
782.868940 39.122537 -680.609282
783.485258 38.603588 -678.778751
784.101576 38.084640 -676.948220
784.717894 37.565692 -675.117688
785.334213 37.046743 -673.287157
785.950531 36.527795 -671.456626
786.566849 36.008846 -669.626095
787.183167 35.489898 -667.795563
787.799485 34.970950 -665.965032
788.415803 34.452001 -664.134501
789.032121 33.933053 -662.303970
789.648439 33.414104 -660.473438
790.264757 32.895156 -658.642907
790.881075 32.376208 -656.812376
791.497393 31.857259 -654.981845
792.113712 31.338311 -653.151314
792.730030 30.819363 -651.320782
793.346348 30.300414 -649.490251
793.962666 29.781466 -647.659720
794.578984 29.262517 -645.829189
795.195302 28.743569 -643.998657
795.811620 28.224621 -642.168126
796.427938 27.705672 -640.337595
797.044256 27.186724 -638.507064
797.660574 26.667775 -636.676532
798.276892 26.148827 -634.846001
798.893210 25.629879 -633.015470
799.509529 25.110930 -631.184939
800.125847 24.591982 -629.354408
800.742165 24.073034 -627.523876
801.358483 23.554085 -625.693345
801.974801 23.035137 -623.862814
802.591119 22.516188 -622.032283
803.207437 21.997240 -620.201751
803.823755 21.478292 -618.371220
804.440073 20.959343 -616.540689
805.056391 20.440395 -614.710158
805.672709 19.921446 -612.879626
806.289028 19.402498 -611.049095
806.905346 18.883550 -609.218564
807.521664 18.364601 -607.388033
808.137982 17.845653 -605.557502
808.754300 17.326705 -603.726970
809.370618 16.807756 -601.896439
809.986936 16.288808 -600.065908
810.603254 15.769859 -598.235377
811.219572 15.250911 -596.404845
811.835890 14.731963 -594.574314
812.452208 14.213014 -592.743783
813.068527 13.694066 -590.913252
813.684845 13.175117 -589.082720
814.301163 12.656169 -587.252189
814.917481 12.137221 -585.421658
815.533799 11.618272 -583.591127
816.150117 11.099324 -581.760596
816.766435 10.580376 -579.930064
817.382753 10.061427 -578.099533
817.999071 9.542479 -576.269002
818.615389 9.023530 -574.438471
819.231707 8.504582 -572.607939
819.848026 7.985634 -570.777408
820.464344 7.466685 -568.946877
821.080662 6.947737 -567.116346
821.696980 6.428788 -565.285814
822.313298 5.909840 -563.455283
822.929616 5.390892 -561.624752
823.545934 4.871943 -559.794221
824.162252 4.352995 -557.963690
824.778570 3.834047 -556.133158
825.394888 3.315098 -554.302627
826.011206 2.796150 -552.472096
826.627524 2.277201 -550.641565
827.243843 1.758253 -548.811033
827.860161 1.239305 -546.980502
828.476479 0.720356 -545.149971
829.092797 0.201408 -543.319440
829.709115 -0.317541 -541.488908
830.325433 -0.836489 -539.658377
830.941751 -1.355437 -537.827846
831.558069 -1.874386 -535.997315
832.174387 -2.393334 -534.166784
832.790705 -2.912282 -532.336252
833.407023 -3.431231 -530.505721
834.023342 -3.950179 -528.675190
834.639660 -4.469128 -526.844659
835.255978 -4.988076 -525.014127
835.872296 -5.507024 -523.183596
836.488614 -6.025973 -521.353065
837.104932 -6.544921 -519.522534
837.721250 -7.063870 -517.692002
838.337568 -7.582818 -515.861471
838.953886 -8.101766 -514.030940
839.637680 -8.677530 -512.000000
839.637680 -8.677530 -512.000000
840.123007 -10.486272 -511.297924
840.608334 -12.295013 -510.595848
841.093661 -14.103755 -509.893772
841.578988 -15.912497 -509.191695
842.064315 -17.721239 -508.489619
842.549642 -19.529980 -507.787543
843.034969 -21.338722 -507.085467
843.520296 -23.147464 -506.383391
844.005624 -24.956205 -505.681315
844.490951 -26.764947 -504.979239
844.976278 -28.573689 -504.277162
845.461605 -30.382431 -503.575086
845.946932 -32.191172 -502.873010
846.432259 -33.999914 -502.170934
846.917586 -35.808656 -501.468858
847.402913 -37.617398 -500.766782
847.888240 -39.426139 -500.064705
848.373568 -41.234881 -499.362629
848.858895 -43.043623 -498.660553
849.344222 -44.852365 -497.958477
849.829549 -46.661106 -497.256401
850.314876 -48.469848 -496.554325
850.800203 -50.278590 -495.852249
851.285530 -52.087332 -495.150172
851.770857 -53.896073 -494.448096
852.256184 -55.704815 -493.746020
852.741511 -57.513557 -493.043944
853.226839 -59.322299 -492.341868
853.712166 -61.131040 -491.639792
854.197493 -62.939782 -490.937716
854.682820 -64.748524 -490.235639
855.168147 -66.557265 -489.533563
855.653474 -68.366007 -488.831487
